ply
format ascii 1.0
comment Created by OpenAI ChatGPT
element vertex 1422
property float x
property float y
property float z
end_header
1933680.1421 5752696.2653 4.0721
1933679.9157 5752696.4694 4.0813
1933679.6894 5752696.6736 4.0081
1933679.463 5752696.8777 3.9746
1933679.2366 5752697.0818 3.9807
1933679.0102 5752697.2859 3.8892
1933678.7839 5752697.49 3.7643
1933678.5575 5752697.6941 3.8374
1933678.3311 5752697.8982 3.7917
1933678.1048 5752698.1023 3.7521
1933677.8784 5752698.3064 3.6149
1933677.652 5752698.5105 3.4656
1933677.4256 5752698.7146 3.2583
1933677.1993 5752698.9187 2.9352
1933676.9729 5752699.1228 2.8956
1933676.7465 5752699.3269 3.0053
1933676.5202 5752699.531 2.92
1933676.2938 5752699.7351 3.109
1933676.0674 5752699.9392 3.2461
1933675.841 5752700.1433 3.3863
1933675.6147 5752700.3475 3.4412
1933675.3883 5752700.5516 3.3558
1933675.1619 5752700.7557 3.4564
1933674.9356 5752700.9598 3.3833
1933674.7092 5752701.1639 3.3558
1933674.4828 5752701.368 3.2248
1933674.2564 5752701.5721 3.1333
1933674.0301 5752701.7762 3.0663
1933673.8037 5752701.9803 2.9779
1933673.5773 5752702.1844 2.8164
1933673.351 5752702.3885 2.92
1933673.1246 5752702.5926 3.0175
1933672.8982 5752702.7967 2.7432
1933689.4233 5752687.897 5.2761
1933689.6497 5752687.6929 5.2974
1933689.8761 5752687.4888 5.2974
1933690.1024 5752687.2847 5.2883
1933690.3288 5752687.0806 5.2883
1933690.5552 5752686.8765 5.2883
1933690.7815 5752686.6724 5.2883
1933691.0079 5752686.4683 5.2883
1933691.2343 5752686.2642 5.3157
1933691.4607 5752686.0601 5.4072
1933691.687 5752685.856 5.3553
1933691.9134 5752685.6518 5.3279
1933692.1398 5752685.4477 5.334
1933692.3661 5752685.2436 5.3279
1933692.5925 5752685.0395 5.4315
1933692.8189 5752684.8354 5.4254
1933693.0453 5752684.6313 5.4193
1933693.2716 5752684.4272 5.4315
1933693.498 5752684.2231 5.4163
1933693.7244 5752684.019 5.4102
1933693.9507 5752683.8149 5.4712
1933694.1771 5752683.6108 5.4407
1933694.4035 5752683.4067 5.4437
1933694.6299 5752683.2026 5.3706
1933694.8562 5752682.9985 5.395
1933695.0826 5752682.7944 5.2913
1933695.309 5752682.5903 5.2334
1933695.5353 5752682.3862 5.2334
1933695.7617 5752682.1821 5.2334
1933695.9881 5752681.9779 5.2334
1933696.2145 5752681.7738 5.2334
1933696.4408 5752681.5697 5.2608
1933696.6672 5752681.3656 5.3157
1933696.8936 5752681.1615 5.4102
1933697.1199 5752680.9574 5.4651
1933697.3463 5752680.7533 5.4651
1933697.5727 5752680.5492 5.462
1933697.7991 5752680.3451 5.3645
1933698.0254 5752680.141 5.3797
1933698.2518 5752679.9369 5.4651
1933698.4782 5752679.7328 5.4498
1933698.7045 5752679.5287 5.273
1933698.9309 5752679.3246 5.1816
1933699.1573 5752679.1205 5.0658
1933699.3836 5752678.9164 4.892
1933699.61 5752678.7123 4.889
1933699.8364 5752678.5081 5.0322
1933700.0628 5752678.304 4.6848
1933700.2891 5752678.0999 4.8341
1933700.5155 5752677.8958 4.6512
1933700.7419 5752677.6917 4.508
1933700.9682 5752677.4876 4.5141
1933701.1946 5752677.2835 4.3221
1933701.421 5752677.0794 4.3373
1933701.6474 5752676.8753 4.0325
1933689.325 5752687.8608 5.2212
1933689.0987 5752688.065 5.1511
1933688.8724 5752688.2692 5.1359
1933688.646 5752688.4733 5.1328
1933688.4197 5752688.6775 5.1328
1933688.1934 5752688.8816 5.1176
1933687.9671 5752689.0858 5.081
1933687.7408 5752689.29 5.0719
1933687.5144 5752689.4941 5.0719
1933687.2881 5752689.6983 5.0871
1933687.0618 5752689.9024 5.1054
1933686.8355 5752690.1066 5.0597
1933686.6092 5752690.3108 4.8981
1933686.3828 5752690.5149 4.8494
1933686.1565 5752690.7191 4.892
1933685.9302 5752690.9233 4.9317
1933685.7039 5752691.1274 4.9103
1933685.4775 5752691.3316 5.0048
1933685.2512 5752691.5357 4.8555
1933685.0249 5752691.7399 4.9987
1933684.7986 5752691.9441 5.0292
1933684.5723 5752692.1482 4.9835
1933684.3459 5752692.3524 4.9835
1933684.1196 5752692.5565 5.0566
1933683.8933 5752692.7607 4.9591
1933683.667 5752692.9649 4.95
1933683.4407 5752693.169 4.9378
1933683.2143 5752693.3732 4.9408
1933682.988 5752693.5774 5.0048
1933682.7617 5752693.7815 5.1115
1933682.5354 5752693.9857 5.0993
1933682.3091 5752694.1898 5.0658
1933682.0827 5752694.394 4.8951
1933681.8564 5752694.5982 4.8433
1933681.6301 5752694.8023 4.9225
1933681.4038 5752695.0065 4.8372
1933681.1775 5752695.2107 4.7335
1933680.9511 5752695.4148 4.5811
1933680.7248 5752695.619 4.4897
1933680.4985 5752695.8231 4.3952
1933680.2722 5752696.0273 4.2245
1933680.0459 5752696.2315 4.0569
1933679.8195 5752696.4356 4.066
1933679.5932 5752696.6398 4.002
1933679.3669 5752696.8439 3.9715
1933679.1406 5752697.0481 3.9776
1933678.9143 5752697.2523 3.8222
1933678.6879 5752697.4564 3.749
1933678.4616 5752697.6606 3.8892
1933678.2353 5752697.8648 3.7734
1933678.009 5752698.0689 3.7399
1933677.7826 5752698.2731 3.618
1933677.5563 5752698.4772 3.4869
1933677.33 5752698.6814 3.2309
1933677.1037 5752698.8856 2.9474
1933676.8774 5752699.0897 2.8743
1933676.651 5752699.2939 2.8956
1933676.4247 5752699.498 2.859
1933676.1984 5752699.7022 3.0998
1933675.9721 5752699.9064 3.2949
1933675.7458 5752700.1105 3.4199
1933675.5194 5752700.3147 3.429
1933675.2931 5752700.5189 3.24
1933675.0668 5752700.723 3.365
1933674.8405 5752700.9272 3.3406
1933674.6142 5752701.1313 3.3162
1933674.3878 5752701.3355 3.24
1933674.1615 5752701.5397 3.0846
1933673.9352 5752701.7438 2.987
1933673.7089 5752701.948 2.9474
1933673.4826 5752702.1521 2.8438
1933673.2562 5752702.3563 2.9352
1933673.0299 5752702.5605 3.0206
1933672.8036 5752702.7646 2.667
1933689.325 5752687.8608 5.2639
1933689.5513 5752687.6567 5.2822
1933689.7776 5752687.4525 5.2822
1933690.004 5752687.2483 5.273
1933690.2303 5752687.0442 5.273
1933690.4566 5752686.84 5.273
1933690.6829 5752686.6359 5.273
1933690.9092 5752686.4317 5.273
1933691.1356 5752686.2275 5.2974
1933691.3619 5752686.0234 5.4163
1933691.5882 5752685.8192 5.3706
1933691.8145 5752685.6151 5.3462
1933692.0408 5752685.4109 5.3127
1933692.2672 5752685.2067 5.3096
1933692.4935 5752685.0026 5.4376
1933692.7198 5752684.7984 5.4315
1933692.9461 5752684.5942 5.4254
1933693.1725 5752684.3901 5.4376
1933693.3988 5752684.1859 5.4224
1933693.6251 5752683.9818 5.4193
1933693.8514 5752683.7776 5.4712
1933694.0777 5752683.5734 5.4437
1933694.3041 5752683.3693 5.4468
1933694.5304 5752683.1651 5.3828
1933694.7567 5752682.9609 5.4041
1933694.983 5752682.7568 5.3157
1933695.2093 5752682.5526 5.2639
1933695.4357 5752682.3485 5.2639
1933695.662 5752682.1443 5.2639
1933695.8883 5752681.9401 5.2639
1933696.1146 5752681.736 5.2639
1933696.3409 5752681.5318 5.2883
1933696.5673 5752681.3277 5.337
1933696.7936 5752681.1235 5.4193
1933697.0199 5752680.9193 5.4651
1933697.2462 5752680.7152 5.4651
1933697.4725 5752680.511 5.4651
1933697.6989 5752680.3068 5.3797
1933697.9252 5752680.1027 5.3919
1933698.1515 5752679.8985 5.4651
1933698.3778 5752679.6944 5.4529
1933698.6041 5752679.4902 5.2974
1933698.8305 5752679.286 5.2182
1933699.0568 5752679.0819 5.078
1933699.2831 5752678.8777 4.9256
1933699.5094 5752678.6736 4.9256
1933699.7358 5752678.4694 5.0505
1933699.9621 5752678.2652 4.7061
1933700.1884 5752678.0611 4.8372
1933700.4147 5752677.8569 4.6391
1933700.641 5752677.6527 4.5141
1933700.8674 5752677.4486 4.4806
1933701.0937 5752677.2444 4.3129
1933701.32 5752677.0403 4.3282
1933701.5463 5752676.8361 4.0599
1933689.1849 5752687.8088 5.2517
1933688.9586 5752688.013 5.1907
1933688.7323 5752688.2172 5.1786
1933688.5061 5752688.4214 5.1755
1933688.2798 5752688.6256 5.1755
1933688.0535 5752688.8298 5.1633
1933687.8272 5752689.034 5.1298
1933687.6009 5752689.2382 5.1237
1933687.3746 5752689.4424 5.1237
1933687.1483 5752689.6466 5.1359
1933686.922 5752689.8508 5.1511
1933686.6957 5752690.055 5.1115
1933686.4694 5752690.2592 4.9713
1933686.2431 5752690.4634 4.9286
1933686.0168 5752690.6676 4.9652
1933685.7906 5752690.8718 4.9621
1933685.5643 5752691.076 4.9439
1933685.338 5752691.2801 5.0262
1933685.1117 5752691.4843 4.8951
1933684.8854 5752691.6885 5.0201
1933684.6591 5752691.8927 5.0475
1933684.4328 5752692.0969 5.0079
1933684.2065 5752692.3011 5.0079
1933683.9802 5752692.5053 5.0719
1933683.7539 5752692.7095 4.9865
1933683.5276 5752692.9137 4.9408
1933683.3013 5752693.1179 4.9286
1933683.0751 5752693.3221 4.9317
1933682.8488 5752693.5263 4.9865
1933682.6225 5752693.7305 5.081
1933682.3962 5752693.9347 5.0688
1933682.1699 5752694.1389 5.0414
1933681.9436 5752694.3431 4.892
1933681.7173 5752694.5472 4.8829
1933681.491 5752694.7514 4.9164
1933681.2647 5752694.9556 4.8036
1933681.0384 5752695.1598 4.7122
1933680.8121 5752695.364 4.5781
1933680.5858 5752695.5682 4.4592
1933680.3596 5752695.7724 4.3769
1933680.1333 5752695.9766 4.2276
1933679.907 5752696.1808 4.0447
1933679.6807 5752696.385 4.0508
1933679.4544 5752696.5892 3.9959
1933679.2281 5752696.7934 3.9685
1933679.0018 5752696.9976 3.9746
1933678.7755 5752697.2018 3.8009
1933678.5492 5752697.406 3.7368
1933678.3229 5752697.6102 3.935
1933678.0966 5752697.8144 3.7948
1933677.8704 5752698.0185 3.7277
1933677.6441 5752698.2227 3.621
1933677.4178 5752698.4269 3.5082
1933677.1915 5752698.6311 3.2065
1933676.9652 5752698.8353 2.9596
1933676.7389 5752699.0395 2.8956
1933676.5126 5752699.2437 2.8377
1933676.2863 5752699.4479 2.8042
1933676.06 5752699.6521 3.1303
1933675.8337 5752699.8563 3.2614
1933675.6074 5752700.0605 3.3711
1933675.3811 5752700.2647 3.3802
1933675.1549 5752700.4689 3.24
1933674.9286 5752700.6731 3.365
1933674.7023 5752700.8773 3.3406
1933674.476 5752701.0815 3.3162
1933674.2497 5752701.2856 3.24
1933674.0234 5752701.4898 3.0846
1933673.7971 5752701.694 2.987
1933673.5708 5752701.8982 2.9474
1933673.3445 5752702.1024 2.8438
1933673.1182 5752702.3066 2.9352
1933672.8919 5752702.5108 3.0206
1933672.6656 5752702.715 2.667
1933689.1849 5752687.8088 5.2913
1933689.4112 5752687.6047 5.3066
1933689.6375 5752687.4005 5.3066
1933689.8638 5752687.1963 5.2974
1933690.0901 5752686.9921 5.2974
1933690.3164 5752686.7879 5.2974
1933690.5427 5752686.5837 5.2974
1933690.769 5752686.3795 5.2974
1933690.9953 5752686.1753 5.3188
1933691.2216 5752685.9711 5.4224
1933691.4478 5752685.7669 5.3828
1933691.6741 5752685.5627 5.3614
1933691.9004 5752685.3585 5.2944
1933692.1267 5752685.1543 5.2913
1933692.353 5752684.9501 5.4437
1933692.5793 5752684.7459 5.4376
1933692.8056 5752684.5417 5.4315
1933693.0319 5752684.3375 5.4437
1933693.2582 5752684.1334 5.4285
1933693.4845 5752683.9292 5.4254
1933693.7108 5752683.725 5.4712
1933693.9371 5752683.5208 5.4468
1933694.1633 5752683.3166 5.4498
1933694.3896 5752683.1124 5.395
1933694.6159 5752682.9082 5.4132
1933694.8422 5752682.704 5.337
1933695.0685 5752682.4998 5.2913
1933695.2948 5752682.2956 5.2913
1933695.5211 5752682.0914 5.2913
1933695.7474 5752681.8872 5.2913
1933695.9737 5752681.683 5.2913
1933696.2 5752681.4788 5.3127
1933696.4263 5752681.2746 5.3553
1933696.6525 5752681.0704 5.4254
1933696.8788 5752680.8663 5.4651
1933697.1051 5752680.6621 5.4651
1933697.3314 5752680.4579 5.4651
1933697.5577 5752680.2537 5.3919
1933697.784 5752680.0495 5.4011
1933698.0103 5752679.8453 5.4651
1933698.2366 5752679.6411 5.4559
1933698.4629 5752679.4369 5.3188
1933698.6892 5752679.2327 5.2517
1933698.9155 5752679.0285 5.1267
1933699.1418 5752678.8243 4.9957
1933699.368 5752678.6201 4.9957
1933699.5943 5752678.4159 5.0658
1933699.8206 5752678.2117 4.6878
1933700.0469 5752678.0075 4.8036
1933700.2732 5752677.8033 4.6299
1933700.4995 5752677.5991 4.5202
1933700.7258 5752677.395 4.4531
1933700.9521 5752677.1908 4.3068
1933701.1784 5752676.9866 4.3586
1933701.4047 5752676.7824 4.0843
1933689.1849 5752687.8088 5.3188
1933688.9586 5752688.013 5.2639
1933688.7323 5752688.2172 5.2548
1933688.5061 5752688.4214 5.2517
1933688.2798 5752688.6256 5.2517
1933688.0535 5752688.8298 5.2395
1933687.8272 5752689.034 5.2121
1933687.6009 5752689.2382 5.206
1933687.3746 5752689.4424 5.206
1933687.1483 5752689.6466 5.2151
1933686.922 5752689.8508 5.2304
1933686.6957 5752690.055 5.1938
1933686.4694 5752690.2592 5.0719
1933686.2431 5752690.4634 5.0353
1933686.0168 5752690.6676 5.0292
1933685.7906 5752690.8718 5.0262
1933685.5643 5752691.076 5.0109
1933685.338 5752691.2801 5.081
1933685.1117 5752691.4843 4.9682
1933684.8854 5752691.6885 5.078
1933684.6591 5752691.8927 5.1024
1933684.4328 5752692.0969 5.0658
1933684.2065 5752692.3011 5.0658
1933683.9802 5752692.5053 5.1237
1933683.7539 5752692.7095 5.0109
1933683.5276 5752692.9137 4.9682
1933683.3013 5752693.1179 4.9591
1933683.0751 5752693.3221 4.9621
1933682.8488 5752693.5263 5.0109
1933682.6225 5752693.7305 5.1298
1933682.3962 5752693.9347 5.081
1933682.1699 5752694.1389 5.0566
1933681.9436 5752694.3431 4.9256
1933681.7173 5752694.5472 4.9195
1933681.491 5752694.7514 4.9103
1933681.2647 5752694.9556 4.7732
1933681.0384 5752695.1598 4.6543
1933680.8121 5752695.364 4.575
1933680.5858 5752695.5682 4.4348
1933680.3596 5752695.7724 4.3617
1933680.1333 5752695.9766 4.2306
1933679.907 5752696.1808 4.0325
1933679.6807 5752696.385 4.0386
1933679.4544 5752696.5892 3.9898
1933679.2281 5752696.7934 3.9654
1933679.0018 5752696.9976 3.9715
1933678.7755 5752697.2018 3.7826
1933678.5492 5752697.406 3.7247
1933678.3229 5752697.6102 3.938
1933678.0966 5752697.8144 3.7765
1933677.8704 5752698.0185 3.7186
1933677.6441 5752698.2227 3.6241
1933677.4178 5752698.4269 3.5265
1933677.1915 5752698.6311 3.1486
1933676.9652 5752698.8353 2.9688
1933676.7389 5752699.0395 2.9139
1933676.5126 5752699.2437 2.7859
1933676.2863 5752699.4479 2.7584
1933676.06 5752699.6521 3.1577
1933675.8337 5752699.8563 3.3101
1933675.6074 5752700.0605 3.368
1933675.3811 5752700.2647 3.3802
1933675.1549 5752700.4689 3.24
1933674.9286 5752700.6731 3.365
1933674.7023 5752700.8773 3.3406
1933674.476 5752701.0815 3.3162
1933674.2497 5752701.2856 3.24
1933674.0234 5752701.4898 3.0846
1933673.7971 5752701.694 2.987
1933673.5708 5752701.8982 2.9474
1933673.3445 5752702.1024 2.8438
1933673.1182 5752702.3066 2.9352
1933672.8919 5752702.5108 3.0206
1933672.6656 5752702.715 2.667
1933689.1849 5752687.8088 5.3523
1933689.4112 5752687.6047 5.3645
1933689.6375 5752687.4005 5.3645
1933689.8638 5752687.1963 5.3584
1933690.0901 5752686.9921 5.3584
1933690.3164 5752686.7879 5.3584
1933690.5427 5752686.5837 5.3584
1933690.769 5752686.3795 5.3584
1933690.9953 5752686.1753 5.3767
1933691.2216 5752685.9711 5.4681
1933691.4478 5752685.7669 5.395
1933691.6741 5752685.5627 5.3767
1933691.9004 5752685.3585 5.2791
1933692.1267 5752685.1543 5.2761
1933692.353 5752684.9501 5.4468
1933692.5793 5752684.7459 5.4437
1933692.8056 5752684.5417 5.4376
1933693.0319 5752684.3375 5.4468
1933693.2582 5752684.1334 5.4346
1933693.4845 5752683.9292 5.4712
1933693.7108 5752683.725 5.5108
1933693.9371 5752683.5208 5.4894
1933694.1633 5752683.3166 5.4925
1933694.3896 5752683.1124 5.4437
1933694.6159 5752682.9082 5.4224
1933694.8422 5752682.704 5.3553
1933695.0685 5752682.4998 5.3157
1933695.2948 5752682.2956 5.3157
1933695.5211 5752682.0914 5.3157
1933695.7474 5752681.8872 5.3157
1933695.9737 5752681.683 5.3157
1933696.2 5752681.4788 5.334
1933696.4263 5752681.2746 5.3706
1933696.6525 5752681.0704 5.4315
1933696.8788 5752680.8663 5.4651
1933697.1051 5752680.6621 5.4651
1933697.3314 5752680.4579 5.4651
1933697.5577 5752680.2537 5.4011
1933697.784 5752680.0495 5.4102
1933698.0103 5752679.8453 5.4651
1933698.2366 5752679.6411 5.459
1933698.4629 5752679.4369 5.3005
1933698.6892 5752679.2327 5.2426
1933698.9155 5752679.0285 5.1328
1933699.1418 5752678.8243 5.017
1933699.368 5752678.6201 5.017
1933699.5943 5752678.4159 5.078
1933699.8206 5752678.2117 4.7092
1933700.0469 5752678.0075 4.7732
1933700.2732 5752677.8033 4.6208
1933700.4995 5752677.5991 4.5629
1933700.7258 5752677.395 4.4531
1933700.9521 5752677.1908 4.3068
1933701.1784 5752676.9866 4.3586
1933701.4047 5752676.7824 4.0843
1933688.9672 5752687.7273 5.3005
1933688.7409 5752687.9315 5.2517
1933688.5146 5752688.1357 5.2456
1933688.2883 5752688.3399 5.2029
1933688.062 5752688.5441 5.2029
1933687.8357 5752688.7483 5.1938
1933687.6094 5752688.9525 5.1694
1933687.3831 5752689.1567 5.1633
1933687.1568 5752689.3609 5.1633
1933686.9305 5752689.5651 5.1725
1933686.7042 5752689.7692 5.1846
1933686.478 5752689.9734 5.1542
1933686.2517 5752690.1776 5.0079
1933686.0254 5752690.3818 5.014
1933685.7991 5752690.586 5.0079
1933685.5728 5752690.7902 4.9682
1933685.3465 5752690.9944 4.9926
1933685.1202 5752691.1986 5.0536
1933684.8939 5752691.4028 4.9164
1933684.6676 5752691.607 5.014
1933684.4413 5752691.8112 5.0719
1933684.215 5752692.0154 5.0018
1933683.9887 5752692.2196 5.0018
1933683.7625 5752692.4238 5.0536
1933683.5362 5752692.628 4.9926
1933683.3099 5752692.8322 4.956
1933683.0836 5752693.0363 4.9469
1933682.8573 5752693.2405 4.95
1933682.631 5752693.4447 4.9926
1933682.4047 5752693.6489 5.1359
1933682.1784 5752693.8531 5.0932
1933681.9521 5752694.0573 5.0719
1933681.7258 5752694.2615 4.9195
1933681.4995 5752694.4657 4.9134
1933681.2732 5752694.6699 4.9042
1933681.047 5752694.8741 4.7854
1933680.8207 5752695.0783 4.6421
1933680.5944 5752695.2825 4.572
1933680.3681 5752695.4867 4.4135
1933680.1418 5752695.6909 4.3495
1933679.9155 5752695.8951 4.2337
1933679.6892 5752696.0993 4.0234
1933679.4629 5752696.3035 4.0264
1933679.2366 5752696.5076 3.9837
1933679.0103 5752696.7118 3.9624
1933678.784 5752696.916 3.9685
1933678.5577 5752697.1202 3.7643
1933678.3315 5752697.3244 3.7155
1933678.1052 5752697.5286 3.9014
1933677.8789 5752697.7328 3.7612
1933677.6526 5752697.937 3.7094
1933677.4263 5752698.1412 3.6271
1933677.2 5752698.3454 3.5418
1933676.9737 5752698.5496 3.0968
1933676.7474 5752698.7538 2.9779
1933676.5211 5752698.958 2.9291
1933676.2948 5752699.1622 2.7402
1933676.0685 5752699.3664 2.7158
1933675.8422 5752699.5706 3.1821
1933675.616 5752699.7747 3.2766
1933675.3897 5752699.9789 3.3254
1933675.1634 5752700.1831 3.3802
1933674.9371 5752700.3873 3.24
1933674.7108 5752700.5915 3.365
1933674.4845 5752700.7957 3.3406
1933674.2582 5752700.9999 3.3162
1933674.0319 5752701.2041 3.24
1933673.8056 5752701.4083 3.0846
1933673.5793 5752701.6125 2.987
1933673.353 5752701.8167 2.9474
1933673.1268 5752702.0209 2.8438
1933672.9005 5752702.2251 2.9352
1933672.6742 5752702.4293 3.0206
1933688.9672 5752687.7273 5.331
1933689.1935 5752687.5231 5.3401
1933689.4197 5752687.3189 5.3401
1933689.646 5752687.1147 5.334
1933689.8723 5752686.9105 5.334
1933690.0986 5752686.7063 5.334
1933690.3249 5752686.5021 5.334
1933690.5512 5752686.2979 5.334
1933690.7775 5752686.0938 5.3523
1933691.0038 5752685.8896 5.4681
1933691.2301 5752685.6854 5.4041
1933691.4564 5752685.4812 5.3889
1933691.6827 5752685.277 5.2669
1933691.9089 5752685.0728 5.2639
1933692.1352 5752684.8686 5.4498
1933692.3615 5752684.6644 5.4468
1933692.5878 5752684.4602 5.4437
1933692.8141 5752684.256 5.4498
1933693.0404 5752684.0518 5.4407
1933693.2667 5752683.8476 5.4712
1933693.493 5752683.6434 5.5077
1933693.7193 5752683.4392 5.4864
1933693.9456 5752683.235 5.4894
1933694.1719 5752683.0308 5.4468
1933694.3982 5752682.8266 5.4285
1933694.6244 5752682.6225 5.3706
1933694.8507 5752682.4183 5.337
1933695.077 5752682.2141 5.337
1933695.3033 5752682.0099 5.337
1933695.5296 5752681.8057 5.337
1933695.7559 5752681.6015 5.337
1933695.9822 5752681.3973 5.3523
1933696.2085 5752681.1931 5.3828
1933696.4348 5752680.9889 5.4376
1933696.6611 5752680.7847 5.4651
1933696.8874 5752680.5805 5.4651
1933697.1137 5752680.3763 5.4651
1933697.3399 5752680.1721 5.3736
1933697.5662 5752679.9679 5.4193
1933697.7925 5752679.7637 5.4651
1933698.0188 5752679.5595 5.462
1933698.2451 5752679.3554 5.2852
1933698.4714 5752679.1512 5.2334
1933698.6977 5752678.947 5.1389
1933698.924 5752678.7428 5.0353
1933699.1503 5752678.5386 5.0353
1933699.3766 5752678.3344 5.0505
1933699.6029 5752678.1302 4.6909
1933699.8292 5752677.926 4.7457
1933700.0554 5752677.7218 4.6147
1933700.2817 5752677.5176 4.5629
1933700.508 5752677.3134 4.4653
1933700.7343 5752677.1092 4.3373
1933700.9606 5752676.905 4.383
1933701.1869 5752676.7008 4.1057
1933688.8345 5752687.6775 5.3614
1933688.6085 5752687.882 5.3188
1933688.3825 5752688.0865 5.3127
1933688.1565 5752688.291 5.2761
1933687.9305 5752688.4955 5.2761
1933687.7045 5752688.7001 5.2669
1933687.4785 5752688.9046 5.2456
1933687.2525 5752689.1091 5.2395
1933687.0265 5752689.3136 5.2395
1933686.8005 5752689.5181 5.2487
1933686.5745 5752689.7226 5.2578
1933686.3485 5752689.9271 5.2334
1933686.1225 5752690.1316 5.1054
1933685.8964 5752690.3361 5.1084
1933685.6704 5752690.5406 5.0658
1933685.4444 5752690.7451 5.0322
1933685.2184 5752690.9497 5.0536
1933684.9924 5752691.1542 5.1054
1933684.7664 5752691.3587 4.9865
1933684.5404 5752691.5632 5.0719
1933684.3144 5752691.7677 5.1237
1933684.0884 5752691.9722 5.0597
1933683.8624 5752692.1767 5.0597
1933683.6364 5752692.3812 5.1054
1933683.4104 5752692.5857 5.014
1933683.1844 5752692.7902 4.9835
1933682.9584 5752692.9947 4.9743
1933682.7323 5752693.1993 4.9774
1933682.5063 5752693.4038 5.014
1933682.2803 5752693.6083 5.1389
1933682.0543 5752693.8128 5.1024
1933681.8283 5752694.0173 5.0841
1933681.6023 5752694.2218 4.9134
1933681.3763 5752694.4263 4.9073
1933681.1503 5752694.6308 4.9378
1933680.9243 5752694.8353 4.7945
1933680.6983 5752695.0398 4.5933
1933680.4723 5752695.2444 4.572
1933680.2463 5752695.4489 4.3952
1933680.0203 5752695.6534 4.3373
1933679.7943 5752695.8579 4.2367
1933679.5683 5752696.0624 4.0142
1933679.3422 5752696.2669 4.0173
1933679.1162 5752696.4714 3.9807
1933678.8902 5752696.6759 3.9624
1933678.6642 5752696.8804 3.9654
1933678.4382 5752697.0849 3.7887
1933678.2122 5752697.2894 3.7064
1933677.9862 5752697.494 3.9075
1933677.7602 5752697.6985 3.746
1933677.5342 5752697.903 3.7003
1933677.3082 5752698.1075 3.5905
1933677.0822 5752698.312 3.554
1933676.8562 5752698.5165 3.051
1933676.6302 5752698.721 2.984
1933676.4042 5752698.9255 2.9413
1933676.1782 5752699.13 2.7005
1933675.9521 5752699.3345 2.7188
1933675.7261 5752699.539 3.1638
1933675.5001 5752699.7436 3.2766
1933675.2741 5752699.9481 3.3254
1933675.0481 5752700.1526 3.3802
1933674.8221 5752700.3571 3.24
1933674.5961 5752700.5616 3.365
1933674.3701 5752700.7661 3.3406
1933674.1441 5752700.9706 3.3162
1933673.9181 5752701.1751 3.24
1933673.6921 5752701.3796 3.0846
1933673.4661 5752701.5841 2.987
1933673.2401 5752701.7886 2.9474
1933673.0141 5752701.9932 2.8438
1933672.7881 5752702.1977 2.9352
1933672.562 5752702.4022 3.0206
1933688.8345 5752687.6775 5.3858
1933689.0605 5752687.473 5.395
1933689.2865 5752687.2685 5.395
1933689.5126 5752687.064 5.3889
1933689.7386 5752686.8595 5.3889
1933689.9646 5752686.655 5.3889
1933690.1906 5752686.4505 5.3889
1933690.4166 5752686.2459 5.3523
1933690.6426 5752686.0414 5.3675
1933690.8686 5752685.8369 5.4315
1933691.0946 5752685.6324 5.4132
1933691.3206 5752685.4279 5.4011
1933691.5466 5752685.2234 5.2548
1933691.7726 5752685.0189 5.2517
1933691.9986 5752684.8144 5.4529
1933692.2246 5752684.6099 5.4498
1933692.4506 5752684.4054 5.4468
1933692.6766 5752684.2009 5.4529
1933692.9027 5752683.9963 5.4437
1933693.1287 5752683.7918 5.4712
1933693.3547 5752683.5873 5.5047
1933693.5807 5752683.3828 5.4864
1933693.8067 5752683.1783 5.4864
1933694.0327 5752682.9738 5.4498
1933694.2587 5752682.7693 5.4346
1933694.4847 5752682.5648 5.3828
1933694.7107 5752682.3603 5.3553
1933694.9367 5752682.1558 5.3553
1933695.1627 5752681.9513 5.3553
1933695.3887 5752681.7467 5.3553
1933695.6147 5752681.5422 5.3553
1933695.8407 5752681.3377 5.331
1933696.0667 5752681.1332 5.395
1933696.2928 5752680.9287 5.4041
1933696.5188 5752680.7242 5.4651
1933696.7448 5752680.5197 5.4651
1933696.9708 5752680.3152 5.4651
1933697.1968 5752680.1107 5.3492
1933697.4228 5752679.9062 5.3889
1933697.6488 5752679.7017 5.4651
1933697.8748 5752679.4971 5.4651
1933698.1008 5752679.2926 5.27
1933698.3268 5752679.0881 5.2243
1933698.5528 5752678.8836 5.142
1933698.7788 5752678.6791 5.0536
1933699.0048 5752678.4746 5.0536
1933699.2308 5752678.2701 5.0658
1933699.4568 5752678.0656 4.7122
1933699.6829 5752677.8611 4.7214
1933699.9089 5752677.6566 4.6086
1933700.1349 5752677.4521 4.5629
1933700.3609 5752677.2475 4.4653
1933700.5869 5752677.043 4.3373
1933700.8129 5752676.8385 4.383
1933701.0389 5752676.634 4.1057
1933688.7122 5752687.6311 5.4132
1933688.4862 5752687.8357 5.3767
1933688.2603 5752688.0403 5.3706
1933688.0344 5752688.2449 5.3401
1933687.8084 5752688.4495 5.3401
1933687.5825 5752688.654 5.331
1933687.3566 5752688.8586 5.3127
1933687.1306 5752689.0632 5.3066
1933686.9047 5752689.2678 5.3066
1933686.6787 5752689.4724 5.3157
1933686.4528 5752689.677 5.3218
1933686.2269 5752689.8816 5.3005
1933686.0009 5752690.0862 5.1907
1933685.775 5752690.2907 5.1938
1933685.5491 5752690.4953 5.1542
1933685.3231 5752690.6999 5.1267
1933685.0972 5752690.9045 5.145
1933684.8713 5752691.1091 5.1511
1933684.6453 5752691.3137 5.0475
1933684.4194 5752691.5183 5.1237
1933684.1935 5752691.7229 5.1664
1933683.9675 5752691.9274 5.1115
1933683.7416 5752692.132 5.1115
1933683.5156 5752692.3366 5.1511
1933683.2897 5752692.5412 5.0719
1933683.0638 5752692.7458 5.0079
1933682.8378 5752692.9504 4.9987
1933682.6119 5752693.155 5.0018
1933682.386 5752693.3596 5.0322
1933682.16 5752693.5641 5.142
1933681.9341 5752693.7687 5.1115
1933681.7082 5752693.9733 5.0963
1933681.4822 5752694.1779 4.9073
1933681.2563 5752694.3825 4.9012
1933681.0303 5752694.5871 4.9286
1933680.8044 5752694.7917 4.8036
1933680.5785 5752694.9963 4.5507
1933680.3525 5752695.2008 4.5324
1933680.1266 5752695.4054 4.3769
1933679.9007 5752695.61 4.3282
1933679.6747 5752695.8146 4.2398
1933679.4488 5752696.0192 4.0051
1933679.2229 5752696.2238 4.0081
1933678.9969 5752696.4284 4.0142
1933678.771 5752696.6329 3.9624
1933678.545 5752696.8375 3.9624
1933678.3191 5752697.0421 3.81
1933678.0932 5752697.2467 3.7003
1933677.8672 5752697.4513 3.874
1933677.6413 5752697.6559 3.7338
1933677.4154 5752697.8605 3.6942
1933677.1894 5752698.0651 3.5601
1933676.9635 5752698.2696 3.5662
1933676.7376 5752698.4742 3.048
1933676.5116 5752698.6788 2.9901
1933676.2857 5752698.8834 2.9535
1933676.0598 5752699.088 2.667
1933675.8338 5752699.2926 2.7584
1933675.6079 5752699.4972 3.1852
1933675.3819 5752699.7018 3.2766
1933675.156 5752699.9063 3.3254
1933674.9301 5752700.1109 3.3802
1933674.7041 5752700.3155 3.24
1933674.4782 5752700.5201 3.365
1933674.2523 5752700.7247 3.3406
1933674.0263 5752700.9293 3.3162
1933673.8004 5752701.1339 3.24
1933688.7122 5752687.6311 5.4346
1933688.9381 5752687.4265 5.4437
1933689.164 5752687.2219 5.4437
1933689.39 5752687.0174 5.4376
1933689.6159 5752686.8128 5.4376
1933689.8419 5752686.6082 5.4376
1933690.0678 5752686.4036 5.4376
1933690.2937 5752686.199 5.4072
1933690.5197 5752685.9944 5.3797
1933690.7456 5752685.7898 5.398
1933690.9715 5752685.5852 5.4224
1933691.1975 5752685.3807 5.4102
1933691.4234 5752685.1761 5.2456
1933691.6493 5752684.9715 5.2426
1933691.8753 5752684.7669 5.4559
1933692.1012 5752684.5623 5.4529
1933692.3272 5752684.3577 5.4498
1933692.5531 5752684.1531 5.4559
1933692.779 5752683.9485 5.4864
1933693.005 5752683.744 5.4712
1933693.2309 5752683.5394 5.5016
1933693.4568 5752683.3348 5.523
1933693.6828 5752683.1302 5.4864
1933693.9087 5752682.9256 5.4529
1933694.1346 5752682.721 5.4407
1933694.3606 5752682.5164 5.395
1933694.5865 5752682.3118 5.3706
1933694.8124 5752682.1073 5.3706
1933695.0384 5752681.9027 5.3706
1933695.2643 5752681.6981 5.3706
1933695.4903 5752681.4935 5.3706
1933695.7162 5752681.2889 5.3492
1933695.9421 5752681.0843 5.4041
1933696.1681 5752680.8797 5.4132
1933696.394 5752680.6751 5.4651
1933696.6199 5752680.4706 5.4651
1933696.8459 5752680.266 5.4651
1933697.0718 5752680.0614 5.3279
1933697.2977 5752679.8568 5.3614
1933697.5237 5752679.6522 5.4651
1933697.7496 5752679.4476 5.4651
1933697.9756 5752679.243 5.2578
1933698.2015 5752679.0385 5.2182
1933698.4274 5752678.8339 5.1084
1933698.6534 5752678.6293 5.0292
1933698.8793 5752678.4247 5.0688
1933699.1052 5752678.2201 5.0414
1933699.3312 5752678.0155 4.7305
1933699.5571 5752677.8109 4.7
1933699.783 5752677.6063 4.6025
1933700.009 5752677.4018 4.5994
1933700.2349 5752677.1972 4.4653
1933700.4609 5752676.9926 4.3373
1933700.6868 5752676.788 4.383
1933700.9127 5752676.5834 4.1057
1933688.6575 5752687.6103 5.459
1933688.4316 5752687.815 5.4285
1933688.2058 5752688.0197 5.4224
1933687.9799 5752688.2243 5.395
1933687.7541 5752688.429 5.395
1933687.5282 5752688.6337 5.3858
1933687.3023 5752688.8383 5.3706
1933687.0765 5752689.043 5.3645
1933686.8506 5752689.2477 5.3645
1933686.6248 5752689.4524 5.3736
1933686.3989 5752689.657 5.3797
1933686.173 5752689.8617 5.3614
1933685.9472 5752690.0664 5.2639
1933685.7213 5752690.271 5.2669
1933685.4955 5752690.4757 5.2334
1933685.2696 5752690.6804 5.209
1933685.0438 5752690.8851 5.1877
1933684.8179 5752691.0897 5.1907
1933684.592 5752691.2944 5.1024
1933684.3662 5752691.4991 5.1664
1933684.1403 5752691.7038 5.206
1933683.9145 5752691.9084 5.1572
1933683.6886 5752692.1131 5.1572
1933683.4627 5752692.3178 5.1907
1933683.2369 5752692.5224 5.1237
1933683.011 5752692.7271 5.0292
1933682.7852 5752692.9318 5.0201
1933682.5593 5752693.1365 5.0231
1933682.3334 5752693.3411 5.0505
1933682.1076 5752693.5458 5.145
1933681.8817 5752693.7505 5.1176
1933681.6559 5752693.9551 5.1054
1933681.43 5752694.1598 4.9012
1933681.2041 5752694.3645 4.8981
1933680.9783 5752694.5692 4.9195
1933680.7524 5752694.7738 4.8128
1933680.5266 5752694.9785 4.5507
1933680.3007 5752695.1832 4.4988
1933680.0748 5752695.3878 4.3617
1933679.849 5752695.5925 4.319
1933679.6231 5752695.7972 4.2428
1933679.3973 5752696.0019 3.999
1933679.1714 5752696.2065 4.002
1933678.9455 5752696.4112 4.0447
1933678.7197 5752696.6159 3.9624
1933678.4938 5752696.8206 3.9624
1933678.268 5752697.0252 3.8283
1933678.0421 5752697.2299 3.6942
1933677.8163 5752697.4346 3.8466
1933677.5904 5752697.6392 3.7216
1933677.3645 5752697.8439 3.6881
1933677.1387 5752698.0486 3.5326
1933676.9128 5752698.2533 3.5753
1933676.687 5752698.4579 3.048
1933676.4611 5752698.6626 2.9962
1933676.2352 5752698.8673 2.9627
1933676.0094 5752699.0719 2.6761
1933675.7835 5752699.2766 2.792
1933675.5577 5752699.4813 3.1852
1933675.3318 5752699.686 3.2766
1933675.1059 5752699.8906 3.3254
1933674.8801 5752700.0953 3.3802
1933674.6542 5752700.3 3.24
1933674.4284 5752700.5046 3.365
1933674.2025 5752700.7093 3.3406
1933673.9766 5752700.914 3.3162
1933673.7508 5752701.1187 3.24
1933688.6575 5752687.6103 5.4773
1933688.8834 5752687.4056 5.4864
1933689.1092 5752687.201 5.4864
1933689.3351 5752686.9963 5.4803
1933689.5609 5752686.7916 5.4803
1933689.7868 5752686.587 5.4803
1933690.0127 5752686.3823 5.4803
1933690.2385 5752686.1776 5.4529
1933690.4644 5752685.9729 5.4285
1933690.6902 5752685.7683 5.4468
1933690.9161 5752685.5636 5.4681
1933691.142 5752685.3589 5.4193
1933691.3678 5752685.1543 5.273
1933691.5937 5752684.9496 5.273
1933691.8195 5752684.7449 5.459
1933692.0454 5752684.5402 5.4559
1933692.2712 5752684.3356 5.4529
1933692.4971 5752684.1309 5.459
1933692.723 5752683.9262 5.4864
1933692.9488 5752683.7215 5.4712
1933693.1747 5752683.5169 5.4986
1933693.4005 5752683.3122 5.5169
1933693.6264 5752683.1075 5.4864
1933693.8523 5752682.9029 5.4559
1933694.0781 5752682.6982 5.4437
1933694.304 5752682.4935 5.4041
1933694.5298 5752682.2888 5.3828
1933694.7557 5752682.0842 5.3828
1933694.9816 5752681.8795 5.3828
1933695.2074 5752681.6748 5.3828
1933695.4333 5752681.4702 5.3828
1933695.6591 5752681.2655 5.3645
1933695.885 5752681.0608 5.4132
1933696.1109 5752680.8561 5.4224
1933696.3367 5752680.6515 5.4651
1933696.5626 5752680.4468 5.4651
1933696.7884 5752680.2421 5.4651
1933697.0143 5752680.0375 5.3096
1933697.2402 5752679.8328 5.3767
1933697.466 5752679.6281 5.4285
1933697.6919 5752679.4234 5.4285
1933697.9177 5752679.2188 5.2456
1933698.1436 5752679.0141 5.2121
1933698.3695 5752678.8094 5.078
1933698.5953 5752678.6047 5.0079
1933698.8212 5752678.4001 5.0444
1933699.047 5752678.1954 5.0201
1933699.2729 5752677.9907 4.7092
1933699.4987 5752677.7861 4.7214
1933699.7246 5752677.5814 4.636
1933699.9505 5752677.3767 4.5933
1933700.1763 5752677.172 4.4013
1933700.4022 5752676.9674 4.2885
1933700.628 5752676.7627 4.3282
1933700.8539 5752676.558 4.1057
1933688.462 5752687.5356 5.4986
1933688.2364 5752687.7405 5.4712
1933688.0108 5752687.9455 5.4681
1933687.7851 5752688.1504 5.4437
1933687.5595 5752688.3554 5.4437
1933687.3339 5752688.5603 5.4346
1933687.1083 5752688.7653 5.4224
1933686.8827 5752688.9702 5.4163
1933686.6571 5752689.1752 5.4163
1933686.4315 5752689.3801 5.4254
1933686.2059 5752689.5851 5.3919
1933685.9803 5752689.79 5.3767
1933685.7547 5752689.995 5.2913
1933685.5291 5752690.1999 5.2944
1933685.3035 5752690.4049 5.2639
1933685.0779 5752690.6098 5.2426
1933684.8523 5752690.8148 5.2243
1933684.6267 5752691.0198 5.2273
1933684.4011 5752691.2247 5.1481
1933684.1755 5752691.4297 5.206
1933683.9499 5752691.6346 5.2395
1933683.7242 5752691.8396 5.1968
1933683.4986 5752692.0445 5.1968
1933683.273 5752692.2495 5.1877
1933683.0474 5752692.4544 5.1298
1933682.8218 5752692.6594 5.0475
1933682.5962 5752692.8643 5.0383
1933682.3706 5752693.0693 5.0414
1933682.145 5752693.2742 5.0658
1933681.9194 5752693.4792 5.1481
1933681.6938 5752693.6841 5.1237
1933681.4682 5752693.8891 5.1145
1933681.2426 5752694.094 4.8981
1933681.017 5752694.299 4.8951
1933680.7914 5752694.5039 4.9134
1933680.5658 5752694.7089 4.7823
1933680.3402 5752694.9138 4.5141
1933680.1146 5752695.1188 4.4684
1933679.889 5752695.3237 4.3861
1933679.6634 5752695.5287 4.3099
1933679.4377 5752695.7336 4.2459
1933679.2121 5752695.9386 3.9929
1933678.9865 5752696.1435 3.9959
1933678.7609 5752696.3485 4.0325
1933678.5353 5752696.5534 3.9624
1933678.3097 5752696.7584 3.9624
1933678.0841 5752696.9634 3.8435
1933677.8585 5752697.1683 3.6881
1933677.6329 5752697.3733 3.8222
1933677.4073 5752697.5782 3.7125
1933677.1817 5752697.7832 3.682
1933676.9561 5752697.9881 3.5082
1933676.7305 5752698.1931 3.5448
1933676.5049 5752698.398 3.048
1933676.2793 5752698.603 2.9627
1933676.0537 5752698.8079 2.9718
1933675.8281 5752699.0129 2.6822
1933675.6025 5752699.2178 2.8986
1933675.3768 5752699.4228 3.2431
1933675.1512 5752699.6277 3.2766
1933674.9256 5752699.8327 3.3254
1933674.7 5752700.0376 3.3802
1933674.4744 5752700.2426 3.24
1933674.2488 5752700.4475 3.365
1933674.0232 5752700.6525 3.3406
1933688.462 5752687.5356 5.5138
1933688.6876 5752687.3306 5.523
1933688.9132 5752687.1257 5.523
1933689.1388 5752686.9207 5.4803
1933689.3644 5752686.7158 5.4803
1933689.59 5752686.5108 5.4803
1933689.8156 5752686.3059 5.4803
1933690.0412 5752686.1009 5.4559
1933690.2668 5752685.896 5.4346
1933690.4924 5752685.691 5.4498
1933690.718 5752685.4861 5.4681
1933690.9436 5752685.2811 5.4254
1933691.1692 5752685.0762 5.2974
1933691.3948 5752684.8712 5.2974
1933691.6204 5752684.6662 5.462
1933691.846 5752684.4613 5.459
1933692.0716 5752684.2563 5.4559
1933692.2973 5752684.0514 5.462
1933692.5229 5752683.8464 5.4864
1933692.7485 5752683.6415 5.4712
1933692.9741 5752683.4365 5.4955
1933693.1997 5752683.2316 5.5108
1933693.4253 5752683.0266 5.4864
1933693.6509 5752682.8217 5.459
1933693.8765 5752682.6167 5.4468
1933694.1021 5752682.4118 5.4132
1933694.3277 5752682.2068 5.395
1933694.5533 5752682.0019 5.395
1933694.7789 5752681.7969 5.395
1933695.0045 5752681.592 5.395
1933695.2301 5752681.387 5.395
1933695.4557 5752681.1821 5.3797
1933695.6813 5752680.9771 5.4224
1933695.9069 5752680.7722 5.4285
1933696.1325 5752680.5672 5.4651
1933696.3582 5752680.3623 5.4651
1933696.5838 5752680.1573 5.4651
1933696.8094 5752679.9524 5.2913
1933697.035 5752679.7474 5.3889
1933697.2606 5752679.5425 5.395
1933697.4862 5752679.3375 5.395
1933697.7118 5752679.1326 5.2365
1933697.9374 5752678.9276 5.206
1933698.163 5752678.7226 5.0902
1933698.3886 5752678.5177 4.9896
1933698.6142 5752678.3127 5.0231
1933698.8398 5752678.1078 4.9621
1933699.0654 5752677.9028 4.6909
1933699.291 5752677.6979 4.7
1933699.5166 5752677.4929 4.6269
1933699.7422 5752677.288 4.5903
1933699.9678 5752677.083 4.3464
1933700.1934 5752676.8781 4.2459
1933700.4191 5752676.6731 4.2824
1933688.3441 5752687.4903 5.5352
1933688.1186 5752687.6954 5.5108
1933687.8931 5752687.9005 5.5077
1933687.6676 5752688.1055 5.4864
1933687.4421 5752688.3106 5.4864
1933687.2166 5752688.5157 5.4773
1933686.9911 5752688.7207 5.4681
1933686.7656 5752688.9258 5.462
1933686.5401 5752689.1308 5.4224
1933686.3146 5752689.3359 5.4315
1933686.0891 5752689.541 5.4011
1933685.8636 5752689.746 5.3889
1933685.6381 5752689.9511 5.3157
1933685.4126 5752690.1562 5.3157
1933685.1871 5752690.3612 5.2913
1933684.9616 5752690.5663 5.273
1933684.7361 5752690.7713 5.2548
1933684.5105 5752690.9764 5.2578
1933684.285 5752691.1815 5.1877
1933684.0595 5752691.3865 5.2395
1933683.834 5752691.5916 5.27
1933683.6085 5752691.7966 5.2304
1933683.383 5752692.0017 5.1938
1933683.1575 5752692.2068 5.1846
1933682.932 5752692.4118 5.1359
1933682.7065 5752692.6169 5.0627
1933682.481 5752692.822 5.0536
1933682.2555 5752693.027 5.0566
1933682.03 5752693.2321 5.078
1933681.8045 5752693.4371 5.1115
1933681.579 5752693.6422 5.1298
1933681.3535 5752693.8473 5.1206
1933681.128 5752694.0523 4.8951
1933680.9025 5752694.2574 4.892
1933680.677 5752694.4625 4.9073
1933680.4515 5752694.6675 4.7915
1933680.2259 5752694.8726 4.5202
1933680.0004 5752695.0776 4.4409
1933679.7749 5752695.2827 4.3708
1933679.5494 5752695.4878 4.3038
1933679.3239 5752695.6928 4.2459
1933679.0984 5752695.8979 3.9868
1933678.8729 5752696.1029 3.9898
1933678.6474 5752696.308 4.0234
1933678.4219 5752696.5131 3.9624
1933678.1964 5752696.7181 3.9624
1933677.9709 5752696.9232 3.8191
1933677.7454 5752697.1283 3.682
1933677.5199 5752697.3333 3.8009
1933677.2944 5752697.5384 3.7033
1933677.0689 5752697.7434 3.6789
1933676.8434 5752697.9485 3.4869
1933676.6179 5752698.1536 3.557
1933676.3924 5752698.3586 3.048
1933676.1669 5752698.5637 2.9718
1933675.9413 5752698.7688 3.0175
1933675.7158 5752698.9738 2.728
1933675.4903 5752699.1789 2.9535
1933675.2648 5752699.3839 3.2949
1933675.0393 5752699.589 3.2766
1933674.8138 5752699.7941 3.3254
1933674.5883 5752699.9991 3.3802
1933674.3628 5752700.2042 3.24
1933674.1373 5752700.4092 3.365
1933673.9118 5752700.6143 3.3406
1933688.3441 5752687.4903 5.5474
1933688.5696 5752687.2853 5.5565
1933688.7951 5752687.0802 5.5565
1933689.0207 5752686.8752 5.5169
1933689.2462 5752686.6701 5.4803
1933689.4717 5752686.465 5.4803
1933689.6972 5752686.26 5.4803
1933689.9227 5752686.0549 5.459
1933690.1482 5752685.8499 5.4407
1933690.3737 5752685.6448 5.4529
1933690.5992 5752685.4397 5.4681
1933690.8247 5752685.2347 5.395
1933691.0502 5752685.0296 5.2822
1933691.2757 5752684.8245 5.3188
1933691.5012 5752684.6195 5.4254
1933691.7267 5752684.4144 5.462
1933691.9522 5752684.2094 5.459
1933692.1777 5752684.0043 5.4651
1933692.4032 5752683.7992 5.523
1933692.6287 5752683.5942 5.4712
1933692.8542 5752683.3891 5.4925
1933693.0798 5752683.184 5.5077
1933693.3053 5752682.979 5.4864
1933693.5308 5752682.7739 5.462
1933693.7563 5752682.5689 5.4498
1933693.9818 5752682.3638 5.4224
1933694.2073 5752682.1587 5.4041
1933694.4328 5752681.9537 5.4041
1933694.6583 5752681.7486 5.4437
1933694.8838 5752681.5436 5.4041
1933695.1093 5752681.3385 5.4041
1933695.3348 5752681.1334 5.3523
1933695.5603 5752680.9284 5.4285
1933695.7858 5752680.7233 5.4346
1933696.0113 5752680.5182 5.4651
1933696.2368 5752680.3132 5.4651
1933696.4623 5752680.1081 5.4285
1933696.6878 5752679.9031 5.2761
1933696.9133 5752679.698 5.3614
1933697.1388 5752679.4929 5.3675
1933697.3644 5752679.2879 5.3675
1933697.5899 5752679.0828 5.2273
1933697.8154 5752678.8777 5.2029
1933698.0409 5752678.6727 5.0627
1933698.2664 5752678.4676 4.9743
1933698.4919 5752678.2626 5.0414
1933698.7174 5752678.0575 4.9134
1933698.9429 5752677.8524 4.6756
1933699.1684 5752677.6474 4.7214
1933699.3939 5752677.4423 4.6177
1933699.6194 5752677.2373 4.5476
1933699.8449 5752677.0322 4.2977
1933700.0704 5752676.8271 4.2093
1933700.2959 5752676.6221 4.2032
1933688.225 5752687.1805 5.5656
1933687.9997 5752687.3858 5.5443
1933687.7744 5752687.5911 5.5413
1933687.5491 5752687.7964 5.523
1933687.3238 5752688.0017 5.523
1933687.0985 5752688.207 5.5138
1933686.8732 5752688.4123 5.5077
1933686.6479 5752688.6176 5.5016
1933686.4226 5752688.8228 5.4681
1933686.1973 5752689.0281 5.4742
1933685.972 5752689.2334 5.4498
1933685.7467 5752689.4387 5.4011
1933685.5214 5752689.644 5.337
1933685.2961 5752689.8493 5.337
1933685.0708 5752690.0546 5.3157
1933684.8455 5752690.2599 5.2974
1933684.6202 5752690.4651 5.2822
1933684.3949 5752690.6704 5.2852
1933684.1696 5752690.8757 5.2243
1933683.9443 5752691.081 5.27
1933683.719 5752691.2863 5.2944
1933683.4937 5752691.4916 5.2608
1933683.2684 5752691.6969 5.1907
1933683.043 5752691.9021 5.1816
1933682.8177 5752692.1074 5.1389
1933682.5924 5752692.3127 5.0749
1933682.3671 5752692.518 5.0688
1933682.1418 5752692.7233 5.0719
1933681.9165 5752692.9286 5.0902
1933681.6912 5752693.1339 5.081
1933681.4659 5752693.3392 5.1359
1933681.2406 5752693.5444 5.1267
1933681.0153 5752693.7497 4.892
1933680.79 5752693.955 4.889
1933680.5647 5752694.1603 4.9012
1933680.3394 5752694.3656 4.8006
1933680.1141 5752694.5709 4.4867
1933679.8888 5752694.7762 4.4166
1933679.6635 5752694.9815 4.3556
1933679.4382 5752695.1867 4.2977
1933679.2129 5752695.392 4.2459
1933678.9876 5752695.5973 4.0203
1933678.7623 5752695.8026 3.9837
1933678.537 5752696.0079 4.0142
1933678.3117 5752696.2132 3.9624
1933678.0864 5752696.4185 3.9624
1933677.8611 5752696.6238 3.8344
1933677.6358 5752696.829 3.6789
1933677.4105 5752697.0343 3.7429
1933677.1852 5752697.2396 3.6972
1933676.9599 5752697.4449 3.6363
1933676.7346 5752697.6502 3.4686
1933676.5093 5752697.8555 3.5296
1933676.284 5752698.0608 3.0846
1933676.0587 5752698.2661 2.9809
1933675.8334 5752698.4713 3.0571
1933675.6081 5752698.6766 2.7676
1933675.3828 5752698.8819 3.0023
1933675.1575 5752699.0872 3.301
1933674.9322 5752699.2925 3.2766
1933674.7069 5752699.4978 3.3254
1933674.4816 5752699.7031 3.3802
1933688.225 5752687.1805 5.5778
1933688.4503 5752686.9753 5.5839
1933688.6756 5752686.77 5.5839
1933688.9009 5752686.5647 5.5504
1933689.1262 5752686.3594 5.5169
1933689.3515 5752686.1541 5.5169
1933689.5768 5752685.9488 5.4803
1933689.8021 5752685.7435 5.462
1933690.0274 5752685.5382 5.4437
1933690.2527 5752685.333 5.4559
1933690.478 5752685.1277 5.4681
1933690.7033 5752684.9224 5.3675
1933690.9286 5752684.7171 5.2669
1933691.1539 5752684.5118 5.337
1933691.3792 5752684.3065 5.395
1933691.6045 5752684.1012 5.4651
1933691.8298 5752683.8959 5.4224
1933692.0551 5752683.6907 5.4651
1933692.2804 5752683.4854 5.5169
1933692.5057 5752683.2801 5.4712
1933692.731 5752683.0748 5.4894
1933692.9563 5752682.8695 5.5047
1933693.1816 5752682.6642 5.4864
1933693.4069 5752682.4589 5.4651
1933693.6322 5752682.2536 5.4529
1933693.8575 5752682.0484 5.4285
1933694.0828 5752681.8431 5.4132
1933694.3081 5752681.6378 5.4132
1933694.5334 5752681.4325 5.4468
1933694.7587 5752681.2272 5.4132
1933694.984 5752681.0219 5.4132
1933695.2093 5752680.8166 5.331
1933695.4346 5752680.6114 5.4346
1933695.6599 5752680.4061 5.4011
1933695.8852 5752680.2008 5.4651
1933696.1105 5752679.9955 5.4651
1933696.3358 5752679.7902 5.395
1933696.5611 5752679.5849 5.2639
1933696.7864 5752679.3796 5.337
1933697.0117 5752679.1743 5.3431
1933697.237 5752678.9691 5.3431
1933697.4623 5752678.7638 5.2212
1933697.6876 5752678.5585 5.1999
1933697.9129 5752678.3532 5.0383
1933698.1382 5752678.1479 4.9621
1933698.3635 5752677.9426 5.0201
1933698.5888 5752677.7373 4.8707
1933698.8141 5752677.532 4.6604
1933699.0394 5752677.3268 4.7396
1933699.2647 5752677.1215 4.6116
1933699.49 5752676.9162 4.511
1933699.7153 5752676.7109 4.255
1933699.9406 5752676.5056 4.1758
1933700.1659 5752676.3003 4.1331
1933700.3912 5752676.095 3.9289
1933688.1676 5752687.1581 5.5931
1933687.9424 5752687.3635 5.5748
1933687.7172 5752687.5689 5.5717
1933687.492 5752687.7743 5.5565
1933687.2669 5752687.9797 5.5565
1933687.0417 5752688.1851 5.5474
1933686.8165 5752688.3905 5.5413
1933686.5913 5752688.596 5.5352
1933686.3661 5752688.8014 5.4681
1933686.1409 5752689.0068 5.4742
1933685.9158 5752689.2122 5.4529
1933685.6906 5752689.4176 5.4102
1933685.4654 5752689.623 5.3553
1933685.2402 5752689.8284 5.3553
1933685.015 5752690.0339 5.337
1933684.7898 5752690.2393 5.3188
1933684.5647 5752690.4447 5.3066
1933684.3395 5752690.6501 5.3096
1933684.1143 5752690.8555 5.2548
1933683.8891 5752691.0609 5.2944
1933683.6639 5752691.2663 5.3157
1933683.4387 5752691.4718 5.2487
1933683.2136 5752691.6772 5.1877
1933682.9884 5752691.8826 5.1816
1933682.7632 5752692.088 5.142
1933682.538 5752692.2934 5.0871
1933682.3128 5752692.4988 5.081
1933682.0876 5752692.7042 5.0841
1933681.8624 5752692.9097 5.0627
1933681.6373 5752693.1151 5.0536
1933681.4121 5752693.3205 5.1389
1933681.1869 5752693.5259 5.0932
1933680.9617 5752693.7313 4.889
1933680.7365 5752693.9367 4.8859
1933680.5113 5752694.1422 4.8981
1933680.2862 5752694.3476 4.7701
1933680.061 5752694.553 4.4592
1933679.8358 5752694.7584 4.3952
1933679.6106 5752694.9638 4.3434
1933679.3854 5752695.1692 4.2916
1933679.1602 5752695.3746 4.2459
1933678.9351 5752695.5801 4.0112
1933678.7099 5752695.7855 3.9807
1933678.4847 5752695.9909 4.0051
1933678.2595 5752696.1963 3.9624
1933678.0343 5752696.4017 3.9624
1933677.8091 5752696.6071 3.81
1933677.584 5752696.8125 3.6759
1933677.3588 5752697.018 3.7308
1933677.1336 5752697.2234 3.6911
1933676.9084 5752697.4288 3.5997
1933676.6832 5752697.6342 3.4534
1933676.458 5752697.8396 3.5052
1933676.2328 5752698.045 3.1181
1933676.0077 5752698.2504 2.987
1933675.7825 5752698.4559 3.0541
1933675.5573 5752698.6613 2.8011
1933675.3321 5752698.8667 3.045
1933675.1069 5752699.0721 3.3437
1933674.8817 5752699.2775 3.2766
1933674.6566 5752699.4829 3.3254
1933674.4314 5752699.6883 3.3802
1933688.1676 5752687.1581 5.6022
1933688.3928 5752686.9526 5.6083
1933688.618 5752686.7472 5.6083
1933688.8432 5752686.5418 5.5778
1933689.0683 5752686.3364 5.5504
1933689.2935 5752686.131 5.5108
1933689.5187 5752685.9256 5.4803
1933689.7439 5752685.7201 5.4651
1933689.9691 5752685.5147 5.4468
1933690.1943 5752685.3093 5.459
1933690.4194 5752685.1039 5.4315
1933690.6446 5752684.8985 5.3431
1933690.8698 5752684.6931 5.2944
1933691.095 5752684.4877 5.3553
1933691.3202 5752684.2822 5.3675
1933691.5454 5752684.0768 5.4651
1933691.7705 5752683.8714 5.4285
1933691.9957 5752683.666 5.4651
1933692.2209 5752683.4606 5.5108
1933692.4461 5752683.2552 5.4712
1933692.6713 5752683.0498 5.4864
1933692.8965 5752682.8443 5.5016
1933693.1216 5752682.6389 5.4864
1933693.3468 5752682.4335 5.4651
1933693.572 5752682.2281 5.4559
1933693.7972 5752682.0227 5.4346
1933694.0224 5752681.8173 5.4224
1933694.2476 5752681.6119 5.4224
1933694.4728 5752681.4064 5.4894
1933694.6979 5752681.201 5.4224
